ply
format ascii 1.0
comment Author: CloudCompare (TELECOM PARISTECH/EDF R&D)
obj_info Generated by CloudCompare!
element vertex 1182
property float x
property float y
property float z
property float nx
property float ny
property float nz
end_header
66 -148 259 -0.376734 -0.925427 0.0406925 
60 -129 227 0.394404 -0.774201 0.495034 
62 -128 227 0.145672 -0.52236 0.84019 
74 -144 260 0.340378 0.54041 0.76948 
67 -126 228 0.0841881 -0.00959105 0.996404 
69 -125 228 -0.710605 -0.19268 0.676694 
79 -138 254 0.0960662 -0.166596 0.981334 
73 -121 226 0.414544 0.549973 0.72504 
75 -120 226 -0.835354 -0.490751 0.247683 
81 -124 237 0.665213 -0.726382 0.172802 
79 -117 226 0.00366448 0.95643 0.291937 
81 -116 227 -0.56552 -0.815229 0.124855 
86 -119 235 0.953023 -0.294524 0.0707372 
87 -116 232 0.881197 0.399456 0.252839 
87 -111 226 0.745957 -0.631194 0.212466 
90 -111 228 -0.602859 -0.783266 0.151842 
96 -114 239 0 0 0 
95 -110 232 0.598461 -0.783302 0.168175 
109 -121 260 0.582662 0.0493782 0.811213 
115 -123 269 0.200952 -0.587515 0.783865 
116 -120 267 -0.0986733 0.0986733 0.990216 
119 -119 269 -0.772929 -0.538319 0.335847 
124 -120 276 -0.548903 0.825562 0.130971 
122 -114 268 0.598755 -0.652425 0.46458 
125 -113 270 -0.719846 -0.276127 0.636848 
130 -113 275 0.211264 0.151644 0.965594 
128 -107 267 -0.01476 0.481712 0.876205 
130 -105 267 -0.179937 -0.319423 0.930372 
139 -108 282 -0.628585 0.0496625 0.776154 
135 -101 270 -0.0448717 -0.324358 0.944869 
136 -99 270 -0.307571 -0.60709 0.732695 
141 -98 275 0.367756 0.72407 0.583506 
120 -81 232 0.35583 0.864159 0.35583 
121 -79 232 0.0982828 -0.664509 0.740789 
130 -81 245 -0.427707 -0.134991 0.893781 
125 -75 233 0.528307 -0.518244 0.672543 
127 -73 234 0.852207 -0.304691 0.42533 
134 -74 245 -0.249637 0.283873 0.925796 
129 -69 234 0.542013 -0.442561 0.714396 
130 -66 234 0.468561 -0.0764713 0.880115 
139 -68 247 0.813373 -0.294199 0.501868 
133 -62 234 -0.268889 -0.669836 0.692111 
134 -60 235 0.400568 0.710472 0.578598 
143 -61 248 -0.205578 -0.0492907 0.977399 
135 -55 233 0.143436 0.0618059 0.987728 
136 -52 233 -0.506653 0.304623 0.806541 
139 -51 237 -0.477837 0.140882 0.867078 
138 -48 234 -0.418088 -0.779239 0.466893 
140 -45 235 0.873692 -0.196618 0.444977 
142 -43 237 -0.773712 0.00137427 0.633537 
141 -40 235 0.367416 -0.473309 0.800615 
142 -38 235 0.679345 -0.691955 0.244312 
144 -36 238 0.933571 0.153067 0.324061 
144 -33 236 0.478319 -0.375247 0.793978 
144 -31 236 0.87737 -0.433506 0.205657 
146 -28 238 0.944769 0.121949 0.304202 
146 -26 237 0.26403 -0.40887 0.873564 
146 -23 236 0.961751 0.00120671 0.273924 
146 -21 237 -0.191948 0.823715 0.533526 
149 -18 240 0.796307 0.244658 0.553207 
147 -15 237 -0.314333 0.920033 0.233955 
134 -12 215 -0.308777 0.939932 0.145547 
132 -9 211 -0.380493 0.653921 0.653921 
124 -6 198 0.416497 0.881905 0.220847 
122 -4 196 0.314833 -0.63128 0.708778 
128 -2 205 0.222476 0.814721 0.535476 
123 0 198 0.266127 0.941788 0.205456 
-160 0 246 0.142753 0.968405 0.204484 
-150 -3 231 -0.472955 0.824922 0.309542 
-181 -6 278 0 0 0 
-132 -7 204 0.0088483 -0.936656 0.35014 
-140 -10 216 -0.318759 -0.844322 0.430713 
-133 -12 206 -0.267674 0.957096 0.110987 
-141 -15 219 -0.146978 0.963809 0.222418 
-155 -19 241 0 0 0 
-150 -21 233 0.640632 0.666982 0.380427 
-156 -25 243 0.603838 -0.313996 0.732657 
-150 -26 234 0.240518 -0.721553 0.64924 
-157 -31 247 0.53928 -0.617045 0.573091 
-149 -32 234 0.256899 0.47534 0.84146 
-152 -35 240 -0.701919 0.050035 0.710497 
-147 -37 233 0.082647 0.622027 0.778622 
-148 -40 237 -0.208202 0.587592 0.781913 
-147 -42 235 0.489451 -0.728369 0.479496 
-145 -44 234 -0.0916493 -0.621179 0.778292 
-145 -47 234 -0.0883033 -0.314992 0.944977 
-143 -49 232 -0.307792 -0.0288948 0.951015 
-143 -52 234 -0.432214 -0.135513 0.891531 
-141 -54 233 -0.0516042 0.534173 0.843799 
-140 -57 233 0.700903 0.0382311 0.712231 
-143 -61 240 0.528307 -0.672543 0.518244 
-138 -61 232 0.218974 -0.478721 0.850221 
-137 -64 233 -0.149644 -0.281761 0.947743 
-140 -68 239 0 0 0 
-134 -68 232 -0.240033 0.196638 0.950641 
-135 -72 236 -0.34474 0.157715 0.925354 
-132 -73 232 0.123583 0.0256073 0.992004 
-131 -75 232 -0.222329 -0.428244 0.875886 
-145 -87 260 -0.0392444 0.88909 0.456048 
-127 -79 231 -0.196697 0.0927818 0.976064 
-128 -83 236 -0.173074 0.905422 0.387629 
-147 -99 273 -0.0817607 0.82191 0.563719 
-143 -100 269 0.525959 -0.00946455 0.850457 
-146 -106 278 0.277419 -0.131409 0.95172 
-139 -105 268 0.425432 -0.150405 0.892405 
-137 -107 268 -0.159035 -0.286807 0.944696 
-149 -120 294 -0.241367 -0.966733 0.0846681 
-133 -111 267 0.641801 -0.757414 0.12006 
-130 -113 266 -0.766024 -0.639551 0.0646737 
-130 -117 270 0 0 0 
-127 -118 268 0.942798 -0.332079 0.0292636 
-132 -127 282 -0.745009 -0.644455 0.17216 
-122 -122 265 -0.872437 0.331557 0.359059 
-118 -123 263 -0.360459 -0.932576 0.0192416 
-127 -136 286 -0.0764337 -0.777317 0.624449 
-102 -114 236 0.962786 0.261202 0.0694014 
-98 -113 230 -0.412425 -0.909484 0.0523927 
-96 -114 229 -0.510996 -0.818525 0.262487 
-93 -115 228 -0.488548 0.849323 0.199929 
-94 -120 234 0.800504 -0.564792 0.200509 
-89 -118 228 0.922796 0.214703 0.319922 
-87 -119 227 -0.900133 -0.422853 0.104667 
-92 -132 247 0.228043 0.381053 0.895989 
-82 -122 226 -0.983993 0.175423 0.031367 
-81 -125 229 -0.973262 0.220245 0.0652123 
-87 -139 252 0.176887 0.203092 0.96305 
-76 -126 226 -0.185655 -0.931068 0.314078 
-76 -132 234 -0.0417463 -0.443049 0.895525 
-71 -128 226 -0.606351 -0.267554 0.748835 
-69 -130 226 -0.9685 0.0379564 0.246104 
-72 -142 246 0.514788 0.857075 0.0203742 
-64 -132 226 -0.340522 0.889557 0.30452 
-66 -141 239 0.874029 0.471947 0.115492 
-70 -157 264 0 0 0 
-67 -158 265 0 0 0 
-68 -168 279 -0.0224896 -0.976521 0.214243 
-61 -159 263 0 0 0 
-58 -161 263 -0.699037 0.713333 0.0500334 
-61 -178 290 -0.856104 -0.373094 0.357613 
-53 -163 263 0.786622 0.45251 0.420072 
-50 -163 263 0.489601 -0.272001 0.828436 
-48 -166 267 0.890801 0.0789668 0.447479 
-40 -148 236 0.954595 -0.0287755 0.296513 
-36 -143 227 0.660491 0.073709 0.747207 
-35 -152 240 -0.901212 -0.34367 0.264021 
-30 -142 224 -0.23067 0.447771 0.863882 
-29 -150 236 0 0 0 
-25 -143 224 0.254458 0.621131 0.741247 
-23 -146 228 0.128451 0.571384 0.810568 
-20 -144 224 -0.119632 0.79016 0.601112 
-18 -144 224 0.0860081 0.727425 0.680776 
-17 -164 253 0.591282 0.766941 0.249373 
-13 -145 225 0.900882 -0.0526752 0.430857 
-10 -146 226 -0.121978 -0.956154 0.266254 
-8 -160 247 -0.233514 0.89734 0.374503 
-5 -146 226 -0.578409 -0.422619 0.697737 
-3 -149 229 0.612146 -0.781116 0.123022 
0 -147 226 0.0298466 -0.975386 0.218477 
3 -147 226 0.44022 -0.798201 0.411195 
6 -165 255 -0.800384 0.463549 0.380142 
8 -146 225 0.129944 -0.966216 0.222577 
10 -146 226 -0.646922 -0.722475 0.243973 
13 -150 232 0.30261 -0.842653 0.44538 
15 -146 226 0.272489 -0.918387 0.286906 
18 -148 230 -0.395639 -0.904113 0.161398 
21 -153 237 -0.577478 -0.784936 0.224489 
23 -145 226 0.0679132 0.683467 0.726816 
29 -164 256 0 0 0 
28 -143 225 -0.0466253 0.600477 0.798281 
30 -143 225 -0.0412084 0.686332 0.72612 
33 -145 229 -0.616909 0.296437 0.729074 
35 -142 225 -0.234984 0.779649 0.580457 
38 -141 225 -0.486566 0.463475 0.74057 
44 -154 247 -0.515236 -0.831369 0.208222 
43 -140 225 0.353299 0.152212 0.923045 
45 -139 226 0.485314 0.0481189 0.873015 
49 -143 232 -0.330395 0.655907 0.678693 
50 -137 225 -0.145762 0.39483 0.907118 
53 -137 226 -0.0881564 0.311837 0.946037 
56 -139 231 -0.123823 0.288921 0.949312 
57 -135 226 -0.262985 0.262985 0.928266 
60 -134 226 0.198556 0.142191 0.96972 
62 -134 227 -0.213622 0.129197 0.968336 
65 -133 227 -0.0659268 0.178602 0.98171 
67 -132 227 -0.719719 -0.202759 0.663998 
70 -132 230 -0.311426 -0.541402 0.78096 
73 -131 231 0.342697 -0.166453 0.924582 
74 -128 227 0.305753 -0.0550099 0.95052 
77 -128 230 -0.389526 -0.860653 0.327941 
80 -128 232 0.262524 -0.394536 0.880581 
81 -124 228 0 0 0 
83 -124 230 0.740412 -0.588781 0.324233 
91 -130 244 -0.0392407 -0.0498463 0.997986 
87 -119 227 0.640382 -0.711 0.290499 
89 -119 229 -0.541902 -0.826957 0.149951 
96 -123 240 0 0 0 
93 -115 227 0.634678 0.753395 0.171987 
96 -114 229 0.0672436 0.960441 0.270243 
106 -122 248 0.359017 -0.896804 0.258551 
100 -111 231 -0.928538 -0.2736 0.250918 
110 -118 249 0.627399 -0.756253 0.185612 
133 -138 294 -0.745725 -0.511966 0.426364 
122 -122 267 -0.809916 -0.518534 0.27415 
125 -120 267 -0.667044 0.0861173 0.740025 
141 -131 297 0.251016 0.648854 0.718317 
129 -116 268 -0.0256427 -0.481812 0.875899 
131 -114 268 0.00515331 -0.0505024 0.998711 
148 -124 297 0.000977516 0.000977516 0.999999 
135 -109 267 -0.564624 0.0520974 0.823703 
137 -107 268 -0.642962 0.322291 0.694787 
144 -108 277 0.0251063 0.223566 0.974365 
141 -103 269 -0.324057 0.439904 0.837539 
143 -100 269 -0.142736 0.758752 0.635549 
149 -100 276 -0.139431 0.745133 0.652178 
127 -83 234 0.0576391 0.915524 0.398112 
127 -80 231 -0.457144 0.526963 0.71647 
132 -79 237 -0.505347 0.283182 0.815127 
130 -75 231 -0.740469 0.0739019 0.668016 
131 -73 231 -0.545141 0.384709 0.744862 
135 -72 235 -0.188779 0.636938 0.747443 
136 -69 236 -0.706002 -0.509056 0.492365 
136 -66 233 -0.835713 0.41707 0.357263 
138 -64 234 0.333364 0.619569 0.710635 
139 -62 235 -0.335233 -0.733626 0.591111 
139 -59 233 -0.642737 0.247936 0.724856 
142 -58 237 0.193915 0.193915 0.961662 
144 -55 238 0.378583 0.0882004 0.921355 
143 -52 234 0.50543 0.742505 0.439576 
144 -50 235 0.194006 -0.409893 0.891263 
149 -48 241 -0.316468 0.0581268 0.946821 
145 -44 234 0.451658 -0.328908 0.829352 
147 -42 236 0.477501 -0.0228663 0.878333 
166 -44 264 0.733167 0.653241 0.189056 
148 -37 236 0.157092 -0.299157 0.941184 
150 -35 237 0.34048 -0.0894595 0.935986 
158 -34 248 -0.80142 0.250541 0.543098 
150 -29 236 0.481128 0.331867 0.811407 
151 -27 237 0.078485 -0.352517 0.932508 
171 -27 266 0.447719 -0.876355 0.17762 
152 -21 236 0.411501 0.0719788 0.908562 
152 -19 237 0.222476 0.814721 0.535476 
172 -18 266 0.383161 0.905523 0.182253 
130 -11 201 -0.0465214 0.979335 0.196821 
129 -9 200 0.334582 0.889718 0.310576 
146 -8 226 0.439544 0.643439 0.626727 
128 -4 197 -0.726913 -0.244407 0.641765 
129 -2 199 0.0680103 0.953427 0.293856 
145 0 224 0.355507 0.911076 0.208698 
-157 0 232 -0.0381954 0.92064 0.388539 
-169 -3 250 0.64953 0.704058 0.287076 
-157 -5 233 0.354742 -0.794557 0.492786 
-171 -9 255 0.582066 -0.768201 0.266583 
-139 -10 207 0.836166 -0.04313 0.546778 
-147 -13 219 0 0 0 
-147 -15 219 -0.919209 0.358956 0.161882 
-162 -20 242 0.0586374 0.939501 0.337491 
-161 -23 241 -0.499646 0.755203 0.42429 
-156 -25 235 0 0 0 
-162 -29 245 -0.694569 0.00138085 0.719425 
-155 -30 234 0.796645 -0.035002 0.603434 
-162 -34 245 0.65472 0.0860323 0.75096 
-154 -35 234 0.320148 -0.378356 0.868534 
-157 -39 240 0.177372 -0.0434621 0.983184 
-151 -41 232 -0.626968 -0.0825339 0.774661 
-151 -43 233 -0.271431 -0.41397 0.868881 
-150 -46 232 0.133085 -0.662436 0.737203 
-149 -48 232 0.178577 -0.0838217 0.980349 
-155 -54 244 0.720816 0.182894 0.668561 
-147 -53 231 0.378117 0.0681412 0.923247 
-145 -56 230 -0.690835 0.56765 0.447794 
-146 -59 233 -0.312461 0.0136935 0.949832 
-144 -61 231 -0.668926 -0.494569 0.554923 
-143 -64 232 0.168423 -0.517193 0.839134 
-141 -66 230 0.0884101 -0.215422 0.972511 
-140 -68 230 -0.0920852 0.0807167 0.992474 
-160 -82 267 0.0439344 0.758223 0.650513 
-137 -73 230 -0.333747 0.355083 0.873229 
-138 -76 234 -0.0280079 0.0363065 0.998948 
-136 -79 233 0.153443 -0.257517 0.954013 
-134 -81 232 0.19475 0.904504 0.379401 
-152 -95 265 -0.999271 0.0132963 0.0357978 
-153 -99 270 -0.997746 0.0115407 0.0660968 
-152 -102 271 -0.878854 0.468253 0.0914008 
-164 -115 297 -0.48673 0.865776 0.116298 
-147 -107 269 -0.486051 -0.423862 0.764261 
-146 -110 272 -0.562798 -0.36378 0.742241 
-143 -112 269 0.484165 -0.353137 0.800549 
-141 -114 269 0.226537 0.232028 0.945962 
-141 -118 273 0.540252 -0.737304 0.405599 
-136 -118 267 0.99742 -0.0201392 0.0688973 
-134 -121 268 -0.569046 0.666405 0.481759 
-140 -130 284 -0.686203 -0.686203 0.241354 
-130 -125 268 0.76041 0.644538 0.0796621 
-122 -122 256 0 0 0 
-110 -113 234 0.344472 -0.93423 0.0924847 
-106 -113 230 -0.459041 -0.831913 0.311772 
-107 -119 238 0.201911 -0.474116 0.856998 
-101 -116 229 0.295541 0.954534 0.0389862 
-99 -118 229 0 0 0 
-101 -124 237 -0.978854 -0.171146 0.112045 
-95 -122 229 0.555584 -0.817737 0.15044 
-94 -125 231 0.942289 -0.13384 0.306886 
-90 -124 228 -0.617814 -0.75717 0.212132 
-89 -126 229 -0.568104 -0.688055 0.451484 
-97 -143 256 0.872705 0.487249 0.0312165 
-84 -129 228 0.043828 0.992311 0.115751 
-82 -131 229 -0.541003 -0.265013 0.798175 
-86 -144 249 0 0 0 
-77 -133 228 -0.314088 -0.527732 0.789207 
-75 -135 229 0.889993 -0.452516 0.0560518 
-72 -135 226 -0.163196 -0.985049 0.0551815 
-70 -137 227 -0.445595 -0.895156 0.0119002 
-76 -155 255 0.0293052 0.19107 0.981139 
-65 -138 226 0.985237 -0.167872 0.0335745 
-63 -142 230 0.823797 0.566274 0.0263061 
-71 -168 271 -0.689567 -0.686426 0.230903 
-67 -165 264 0.234705 0.961109 0.145543 
-64 -168 266 -0.870935 0.131 0.473616 
-61 -168 264 -0.766501 0.488665 0.416754 
-58 -168 263 0.222283 -0.817082 0.531946 
-58 -177 276 0.413525 0.834911 0.36321 
-52 -170 264 0.367401 -0.440563 0.819098 
-49 -171 264 0.392127 -0.235276 0.889315 
-46 -171 262 0.891785 -0.187668 0.411705 
-37 -148 226 0.866493 0.11601 0.485522 
-35 -151 230 -0.459766 0.84726 0.266018 
-32 -148 225 -0.522272 0.77128 0.363812 
-29 -150 226 0 0 0 
-30 -169 254 0.000977516 0.000977516 0.999999 
-24 -151 227 0.837054 -0.365917 0.406749 
-21 -152 228 -0.596841 -0.138419 0.79033 
-19 -157 234 0.820937 -0.500039 0.275723 
-16 -153 228 0.577789 -0.728375 0.368279 
-13 -153 228 0.92675 -0.286139 0.243432 
-11 -154 229 -0.594517 -0.793183 0.13195 
-8 -153 227 0 0 0 
-6 -160 237 0.982214 -0.163098 0.0930265 
-3 -153 227 -0.901388 -0.38465 0.198857 
0 -154 228 0.00626343 0.943272 0.331962 
3 -154 229 0.196558 0.00114946 0.980491 
5 -153 227 -0.133475 0.676373 0.724364 
8 -158 235 0.401483 0.897178 0.184074 
11 -153 227 -0.359301 -0.877786 0.316852 
13 -152 226 0.761247 -0.640973 0.0982727 
17 -160 238 0.452618 -0.890285 0.0502909 
19 -152 226 -0.679875 0.721714 0.129998 
21 -152 228 0.664563 0.746399 0.0352741 
24 -152 229 -0.625173 -0.757273 0.188934 
27 -151 228 -0.621079 -0.686976 0.37726 
29 -152 229 -0.132007 -0.960645 0.244409 
32 -152 230 0.460774 -0.883963 0.0793479 
34 -149 227 0.156316 -0.916771 0.367554 
37 -150 229 -0.153374 -0.980367 0.123926 
40 -150 230 0.285126 -0.950862 0.120681 
42 -148 228 -0.512859 -0.539763 0.667557 
45 -148 229 -0.65703 0.552846 0.512517 
48 -148 231 0 0 0 
50 -145 228 0.623066 0.739793 0.253959 
53 -145 228 0.475427 0.426414 0.769506 
58 -150 238 0 0 0 
58 -143 229 0.0334739 -0.0745064 0.996659 
60 -142 228 -0.288384 0.237242 0.927659 
65 -146 237 -0.343615 0.821825 0.454458 
65 -140 229 -0.0150728 0.554953 0.831745 
68 -139 229 -0.192159 0.0820043 0.977932 
73 -144 240 -0.994734 0.025114 0.0993642 
73 -137 230 -0.0670218 -0.149329 0.986513 
75 -136 230 -0.872183 0.184472 0.453063 
82 -141 242 -0.38346 0.48701 0.784717 
80 -133 230 0.0318912 0.830559 0.556017 
82 -131 230 0.162721 -0.231513 0.959126 
89 -137 242 0.118742 0.257058 0.959073 
87 -128 230 -0.588556 0.103691 0.801779 
89 -127 230 -0.33712 0.623753 0.705183 
96 -133 243 -0.118759 0.0703331 0.990429 
94 -124 230 -0.527033 -0.709915 0.46718 
96 -123 230 0.118867 -0.927711 0.353869 
103 -128 244 -0.0613832 0.0859365 0.994408 
100 -119 230 0.700445 -0.68813 0.189351 
102 -117 230 -0.317075 0.741988 0.590693 
110 -122 243 -0.506907 0.846815 0.161087 
106 -114 231 -0.743583 -0.642394 0.185512 
114 -118 244 0.85709 -0.370424 0.358025 
128 -128 269 -0.951209 0.0763555 0.298951 
130 -126 269 -0.613549 0.653672 0.443026 
132 -123 268 -0.367998 0.119909 0.922062 
136 -123 272 -0.0506964 0.878281 0.47545 
138 -120 272 -0.320759 0.186292 0.92866 
140 -118 271 -0.604712 -0.191365 0.773113 
143 -116 273 0.0866764 -0.107479 0.990422 
144 -113 271 0.415463 -0.278497 0.865927 
147 -111 273 -0.107283 -0.257221 0.960379 
149 -108 274 0.111709 -0.240111 0.964296 
153 -107 276 -0.108025 0.0141851 0.994047 
153 -103 274 0.0603538 0.227867 0.97182 
154 -100 273 0.0255875 0.879403 0.47539 
144 -90 251 0.0689172 0.91214 0.404044 
136 -82 235 0.0708326 0.87638 0.476384 
138 -79 235 0.0123626 -0.58379 0.811811 
143 -79 243 -0.0802818 -0.0203381 0.996565 
140 -74 235 -0.132622 -0.103947 0.985701 
142 -72 235 0.426589 -0.0118132 0.904368 
152 -74 250 -0.801998 -0.271518 0.53205 
144 -67 236 0.0981093 -0.199944 0.974883 
146 -65 236 0.645458 -0.369537 0.668451 
154 -66 249 -0.502474 0.65036 0.569695 
148 -60 236 0.332985 0.178435 0.925895 
149 -57 236 -0.0436662 -0.108606 0.993125 
160 -58 253 -0.781074 -0.25201 0.571327 
151 -52 237 -0.177688 -0.206644 0.962146 
153 -50 238 -0.798281 0.0466253 0.600477 
163 -50 252 -0.797545 -0.164334 0.580444 
154 -44 237 -0.47966 0.236023 0.845115 
156 -42 239 -0.818047 0.115609 0.563413 
165 -41 253 0.90659 -0.307094 0.289462 
156 -36 238 -0.815229 -0.124855 0.56552 
158 -33 239 -0.557725 0.305231 0.771866 
162 -32 245 -0.866146 0.197594 0.459072 
159 -28 239 -0.575712 0.040622 0.816643 
160 -25 240 -0.583216 0.0849623 0.807862 
162 -23 243 -0.916983 0.120328 0.380347 
162 -20 241 -0.72188 0.396294 0.567309 
162 -17 242 -0.358339 0.898059 0.255114 
153 -13 228 0.138924 0.931201 0.336993 
136 -9 201 -0.0574428 0.974084 0.218772 
136 -7 201 0.381147 0.501167 0.77689 
137 -5 203 0.0979679 -0.194696 0.975959 
136 -2 202 0.19118 0.907026 0.375172 
136 0 202 0.916144 0.324618 0.235168 
-179 0 256 -0.267363 0.940617 0.20918 
-165 -3 235 -0.293781 -0.557391 0.776536 
-191 -7 274 -0.05409 -0.959783 0.275482 
-149 -8 214 -0.0862622 -0.971387 0.221281 
-148 -10 211 -0.364342 -0.845962 0.389362 
-147 -13 211 -0.634637 0.729596 0.254805 
-148 -16 212 -0.0712137 0.949085 0.306866 
-175 -21 251 0.292478 0.89822 0.32811 
-164 -23 236 -0.353838 0.795736 0.491531 
-172 -27 249 0 0 0 
-163 -29 236 -0.136478 0.68839 0.712386 
-169 -33 247 -0.641801 -0.757414 0.12006 
-161 -34 235 0.340558 -0.669709 0.659932 
-164 -38 241 -0.961327 -0.232135 0.148199 
-159 -40 234 0.129841 -0.0783728 0.988433 
-160 -43 236 -0.960227 -0.21265 0.180951 
-158 -45 234 0.18921 -0.232151 0.954099 
-157 -48 235 0.439667 0.407457 0.80042 
-164 -53 246 0.261977 0.503802 0.823135 
-155 -53 234 0.415224 0.716304 0.560801 
-161 -59 245 0.192618 -0.744277 0.639492 
-153 -59 233 0.626797 -0.489002 0.606632 
-152 -61 233 0.253019 0.526218 0.811835 
-156 -66 242 0.31167 0.116375 0.943037 
-149 -66 233 0.534955 0.00134749 0.844879 
-148 -69 233 0.335617 0.209939 0.918306 
-148 -72 236 0.169246 0.418052 0.892518 
-145 -74 233 0.430426 0.312331 0.846867 
-147 -78 238 0.253054 0.762304 0.595698 
-142 -79 232 0.388324 0.0912902 0.91699 
-141 -81 232 0.333222 0.864536 0.376219 
-149 -90 248 -0.471295 0.732574 0.491139 
-161 -101 271 -0.625518 -0.766522 0.145504 
-159 -103 271 0 0 0 
-157 -106 271 -0.895406 0.444367 0.0280231 
-155 -109 270 -0.988488 -0.104608 0.10931 
-156 -114 276 -0.994895 -0.0655852 0.0767014 
-150 -113 268 0.215268 0.320763 0.922372 
-148 -116 269 0.486566 0.74057 0.463475 
-150 -122 276 -0.756841 0.652933 0.0294873 
-144 -121 268 0.373788 -0.831165 0.41164 
-142 -123 269 -0.769719 -0.634479 0.0704976 
-139 -126 268 0.83573 0.448326 0.317109 
-137 -128 268 0 0 0 
-135 -130 268 0.931571 -0.360312 0.0484784 
-114 -114 230 0.267799 -0.961812 0.0565772 
-111 -115 229 -0.902841 -0.426379 0.0554969 
-111 -120 233 0.924524 0.290075 0.247207 
-107 -119 229 0 0 0 
-111 -127 241 -0.58751 -0.667853 0.456952 
-104 -123 230 0.926052 0.0905773 0.366365 
-101 -125 230 0.738787 -0.586827 0.331403 
-111 -142 257 0 0 0 
-96 -128 229 0.00658815 -0.894671 0.446677 
-94 -130 229 -0.702907 0.482518 0.522589 
-93 -133 233 -0.37205 -0.924038 0.0879392 
-89 -133 229 0.324857 0.483325 0.812936 
-93 -144 245 0.783795 0.618785 0.0526323 
-84 -135 228 0.422415 0.791421 0.441836 
-82 -137 229 0.808853 0.100199 0.579411 
-89 -155 256 0.440278 0.0145437 0.897744 
-77 -139 228 -0.0134279 0.0464812 0.998829 
-75 -141 229 0.897475 0.437161 0.0585606 
-73 -144 230 0.563316 -0.824605 0.0519768 
-70 -144 229 -0.997674 -0.0522845 0.0437482 
-69 -148 233 -0.676907 -0.735768 0.021022 
-65 -146 229 -0.694464 0.665727 0.272996 
-70 -165 256 0.077946 0.995733 0.0494024 
-76 -189 291 -0.927499 -0.00382737 0.373806 
-67 -175 267 -0.798401 -0.56547 0.206879 
-64 -176 267 -0.943423 -0.0968634 0.317128 
-61 -178 270 0 0 0 
-57 -177 265 0.661362 0.39947 0.634842 
-55 -180 269 0.854605 0.040038 0.517733 
-51 -178 265 0.488544 0.179677 0.853839 
-48 -177 262 0.933535 0.00380001 0.358467 
-43 -171 251 0.914048 -0.303714 0.268838 
-36 -154 226 0.91304 0.0196494 0.407397 
-33 -157 229 -0.289446 -0.886334 0.361432 
-31 -158 230 -0.405281 0.263659 0.875347 
-28 -156 227 0.607262 -0.576815 0.546367 
-26 -162 234 0.041702 0.0545334 0.997641 
-22 -158 229 -0.309395 0.404831 0.860457 
-20 -159 229 0.794695 0.46908 0.385258 
-18 -172 247 -0.0774396 0.943713 0.321571 
-14 -159 229 0.380691 0.841281 0.383824 
-11 -161 230 -0.543424 -0.81284 0.209716 
-9 -164 234 0.160012 0.980837 0.111153 
-6 -160 229 0 0 0 
-3 -162 232 0.0012372 0.94893 0.315485 
0 -172 246 0 0 0 
3 -161 229 0.234158 -0.410149 0.881447 
6 -170 243 0.813131 0.348485 0.466237 
8 -160 229 -0.672563 0.731689 0.110862 
11 -161 231 0.742373 0.659061 0.120505 
14 -160 229 -0.904472 -0.386809 0.179744 
17 -159 229 0.336246 0.936399 0.100472 
22 -178 256 0.0722775 0.840403 0.537121 
22 -159 229 -0.801454 0.527479 0.281847 
25 -159 229 0.784345 0.587875 0.198005 
30 -171 248 0.435377 0.804885 0.403246 
31 -157 229 -0.608473 -0.777578 0.158535 
33 -157 229 0.726382 0.665213 0.172802 
38 -163 239 0.570894 0.316806 0.757439 
39 -155 229 -0.901929 0.0527365 0.428653 
42 -155 229 -0.81316 -0.523968 0.253432 
49 -171 255 0.305464 0.799272 0.517548 
47 -153 229 0.375759 -0.911747 0.165901 
49 -152 229 0.250914 -0.960753 0.118306 
59 -171 258 0.122861 -0.988741 0.0854179 
55 -151 229 0.331533 -0.920608 0.206319 
58 -150 229 -0.368679 -0.787266 0.494255 
68 -169 260 0 0 0 
63 -148 229 0.957913 -0.260061 0.121536 
65 -147 229 -0.854781 0.511735 0.0864704 
76 -163 257 -0.124165 0.974506 0.186874 
71 -145 230 0.450045 0.660847 0.600618 
73 -143 229 -0.541164 0.75568 0.368902 
77 -145 235 0.762245 -0.524958 0.378685 
78 -140 229 -0.619641 0.468509 0.629717 
80 -139 229 0.468618 -0.822054 0.323457 
85 -142 237 0.348269 -0.549131 0.759713 
85 -136 229 0.352036 0.682786 0.640214 
87 -135 229 -0.611987 0.0264869 0.790425 
91 -135 233 -0.461086 0.60528 0.648873 
92 -132 230 -0.0923054 -0.498449 0.861991 
95 -130 230 0.57994 0.433709 0.689613 
98 -130 233 0.106889 0.604731 0.789225 
101 -129 234 -0.794319 -0.220558 0.566049 
101 -125 230 -0.499906 -0.778172 0.380188 
105 -125 233 0.183537 -0.876575 0.444895 
108 -125 236 -0.928104 -0.341642 0.147999 
108 -120 231 0.632208 -0.655439 0.413175 
111 -119 233 0.347514 0.849306 0.397382 
115 -119 236 -0.752419 0.640838 0.152293 
114 -114 231 -0.471915 -0.854875 0.215603 
122 -118 242 -0.202674 0.173907 0.96368 
144 -134 281 0.91019 -0.0197011 0.413723 
142 -128 274 0.639515 0.685311 0.34838 
144 -125 273 -0.760126 0.00413862 0.649763 
162 -136 302 -0.671131 -0.409307 0.618103 
149 -121 274 0.175905 0.683736 0.70821 
151 -118 274 -0.0658364 0.125898 0.989856 
165 -125 296 -0.313248 0.136961 0.939743 
155 -113 274 -0.109394 -0.168393 0.979631 
158 -111 275 -0.112095 -0.109736 0.98762 
175 -118 302 -0.584945 -0.167775 0.79353 
162 -105 275 -0.114192 0.133425 0.984458 
163 -102 275 -0.143008 0.27666 0.950267 
164 -98 273 -0.468926 0.552364 0.689204 
143 -82 235 -0.189634 0.667572 0.719991 
144 -80 235 0.475295 -0.38507 0.791085 
148 -79 240 -0.642327 -0.175458 0.746076 
147 -75 236 -0.465991 0.395045 0.791702 
149 -73 237 -0.696014 0.247787 0.673918 
166 -78 262 -0.627208 -0.00413544 0.778841 
151 -67 237 -0.777766 0.308232 0.54779 
153 -65 237 -0.609239 0.538358 0.582236 
157 -63 242 -0.445474 0.685729 0.575612 
156 -60 238 -0.723718 -0.22665 0.651815 
161 -59 245 -0.743832 0.0920656 0.661996 
171 -59 259 0.847758 0.464504 0.256014 
172 -56 259 -0.717088 -0.372492 0.589096 
177 -54 265 0.99548 -0.00106697 0.0949601 
187 -54 278 0 0 0 
189 -51 280 0.959024 -0.0888224 0.269042 
189 -47 278 0 0 0 
193 -45 283 0.645666 -0.753028 0.126747 
193 -41 282 0 0 0 
193 -37 280 -0.976356 -0.214727 0.0249131 
195 -34 283 0.980186 0.195091 0.0342888 
198 -31 287 0.608473 -0.777578 0.158535 
195 -27 281 0.238402 -0.967482 0.0845128 
196 -24 282 0.695769 0.715853 0.0588176 
201 -21 288 0 0 0 
156 -14 224 0.631995 0.564582 0.530876 
145 -10 208 -0.129175 0.936858 0.324977 
152 -8 217 -0.430817 0.863156 0.263361 
140 -5 201 -0.715529 0.522951 0.463185 
143 -2 204 -0.800268 0.58269 0.141574 
161 0 229 0.836459 0.385937 0.389087 
-172 0 236 0.216791 0.935699 0.278332 
-200 -3 276 0.38224 0.838412 0.388532 
-171 -6 235 0.242288 0.302501 0.92184 
-157 -8 216 0.101596 -0.948669 0.29951 
-158 -11 218 0.735906 0.149599 0.660351 
-149 -13 206 0.34582 0.890748 0.29492 
-162 -17 224 0.15781 0.848047 0.505878 
-173 -21 240 0.535544 0.794627 0.285939 
-182 -26 252 -0.705177 0.382998 0.596689 
-172 -27 239 0.156138 -0.943615 0.29191 
-179 -32 250 0.843519 -0.529519 0.0899183 
-170 -33 239 -0.923393 -0.382679 0.0300397 
-183 -39 257 0.267863 -0.952846 0.142594 
-169 -39 239 0 0 0 
-168 -42 238 0.476157 -0.728337 0.492747 
-167 -45 239 0 0 0 
-167 -48 239 -0.204145 0.973135 0.106456 
-167 -51 240 -0.401459 0.692227 0.59971 
-164 -53 238 0 0 0 
-171 -59 249 0.309725 0.358072 0.880826 
-162 -59 237 0.528879 -0.277779 0.801951 
-167 -64 247 0.619173 -0.286388 0.731168 
-159 -64 236 0.474302 -0.228817 0.850106 
-158 -67 236 -0.072606 -0.344548 0.935957 
-168 -75 253 0.492992 0.516388 0.700216 
-154 -72 235 0.178994 -0.221422 0.95861 
-154 -75 235 -0.0468046 0.20282 0.978097 
-155 -79 239 0.0565061 0.475478 0.877911 
-151 -80 235 -0.394422 0.744655 0.538443 
-154 -85 242 -0.500163 -0.857627 0.119635 
-165 -95 262 0.952609 -0.290604 0.089918 
-171 -103 275 0.508239 -0.859132 0.0598747 
-184 -115 299 -0.838283 -0.540416 0.0723391 
-167 -108 273 0.490473 -0.870896 0.031249 
-165 -111 273 0.525551 -0.836441 0.155445 
-166 -116 278 -0.722189 -0.691458 0.0181595 
-160 -116 272 -0.353371 0.81925 0.451618 
-159 -120 274 0 0 0 
-156 -122 272 -0.979187 -0.0152084 0.202389 
-153 -124 272 -0.906687 -0.419192 0.0468745 
-164 -138 295 -0.957134 -0.28166 0.0675474 
-148 -129 270 -0.746747 0.643328 0.168816 
-132 -119 244 0.343426 0.939035 0.0164743 
-126 -117 237 0.261791 -0.962429 0.0720873 
-121 -117 231 0.235981 -0.96987 0.0605397 
-124 -124 242 0.494074 0.867743 0.0539744 
-117 -121 231 -0.972039 0.231785 0.0376195 
-114 -123 231 -0.902702 -0.426313 0.0581952 
-123 -137 254 0.0233366 -0.992363 0.121128 
-110 -126 231 -0.858678 -0.499098 0.116504 
-109 -130 233 -0.800161 -0.556567 0.223552 
-107 -132 233 0.339787 -0.939865 0.0346199 
-103 -132 230 -0.696887 -0.699924 0.156382 
-108 -143 247 -0.451504 0.887631 0.0908599 
-98 -136 231 -0.0162439 -0.995212 0.0963807 
-96 -138 231 0.829733 -0.550759 0.0905948 
-105 -156 259 0.00106471 -0.9955 0.0947588 
-91 -140 230 -0.846017 -0.532372 0.0288884 
-89 -142 231 -0.627779 -0.778112 0.0208796 
-86 -144 231 -0.995777 -0.064918 0.064918 
-83 -144 229 0.773368 -0.119776 0.622539 
-83 -149 235 0.189668 -0.143842 0.971254 
-78 -147 229 0.259336 0.0231333 0.96551 
-75 -148 228 0.824605 0.563316 0.0519768 
-76 -156 239 0 0 0 
-70 -151 229 0.372701 0.927176 0.037924 
-68 -152 229 -0.326179 -0.908327 0.26182 
-65 -153 228 0.956075 -0.292169 0.0236221 
-66 -163 243 -0.252453 0.967129 0.0304896 
-72 -189 278 0.61987 0.774465 0.126352 
-66 -181 265 0 0 0 
-63 -183 266 -0.968169 0.0949185 0.231601 
-62 -190 275 -0.0347786 0.219465 0.975 
-57 -185 267 0.443615 -0.47308 0.761184 
-53 -186 267 0.214243 0.0224896 0.976521 
-50 -186 265 0.845944 -0.157969 0.509338 
-46 -184 261 0.922009 0.00900148 0.387064 
-39 -171 241 0.926724 -0.116354 0.357275 
-34 -162 227 0.904316 0.151902 0.398921 
-32 -163 228 -0.642977 0.592613 0.485171 
-30 -171 239 0.279698 0.338893 0.898288 
-26 -164 228 0.616534 0.653292 0.439427 
-23 -166 231 -0.0834905 -0.505188 0.858961 
-20 -165 228 -0.541974 -0.548727 0.636524 
-17 -165 228 0.176425 -0.959062 0.221526 
-15 -175 242 -0.414227 0.197599 0.888465 
-12 -165 228 0.146939 0.478641 0.865628 
-9 -167 230 -0.604969 -0.329246 0.72499 
-6 -177 244 0.182228 0.922439 0.340441 
-3 -166 229 0.391039 0.812404 0.432537 
0 -168 231 -0.573949 -0.38647 0.721958 
3 -166 229 -0.562304 0.811217 0.160444 
6 -167 231 0.785691 -0.570987 0.238041 
10 -185 256 -0.13526 0.00109968 0.990809 
12 -166 229 0.786829 -0.436406 0.436406 
14 -166 229 -0.0104955 0.978409 0.206411 
18 -169 234 0.690961 0.540388 0.480159 
20 -165 228 0.481165 0.800877 0.356478 
23 -165 229 -0.675072 -0.588396 0.445048 
26 -164 228 0.25826 0.456922 0.851189 
29 -164 229 0.357527 0.890077 0.28273 
34 -173 243 0.818202 -0.109385 0.564428 
35 -163 229 0 0 0 
37 -162 228 -0.54869 0.833613 0.0634731 
42 -169 239 -0.535779 -0.782078 0.318269 
43 -161 229 -0.487228 0.826575 0.281751 
46 -160 229 0.758162 0.489612 0.430662 
49 -160 230 -0.446765 -0.808661 0.382713 
51 -158 229 -0.279765 0.927345 0.248523 
54 -157 229 0.798318 -0.433833 0.417706 
57 -157 231 -0.071703 0.964845 0.252847 
60 -157 231 0.535058 -0.793906 0.288837 
62 -154 229 -0.57767 -0.756891 0.305637 
65 -154 230 0.840695 0.539551 0.0460082 
68 -154 231 -0.600914 0.79596 0.0731423 
70 -151 229 -0.899585 -0.432832 0.0583441 
73 -151 231 -0.130399 -0.945054 0.299782 
79 -155 239 -0.774867 -0.445345 0.448607 
79 -148 231 0.160848 0.44197 0.882491 
81 -147 231 -0.00692856 -0.655442 0.755214 
86 -149 236 -0.0603501 0.112729 0.991791 
86 -144 231 0.283837 0.129259 0.95012 
89 -142 231 0.351347 -0.552116 0.756124 
96 -147 242 -0.167936 0.25392 0.952535 
94 -139 231 -0.0455852 -0.250103 0.967146 
97 -138 232 0.247768 -0.670708 0.699115 
105 -144 245 -0.13046 -0.0189557 0.991272 
102 -135 232 0.255959 -0.043278 0.965718 
104 -133 232 -0.0722775 -0.537121 0.840403 
113 -139 247 -0.194206 0.0317792 0.980446 
109 -130 233 -0.0738301 -0.655785 0.751329 
111 -127 232 0.125488 -0.977813 0.167732 
120 -134 248 -0.954454 0.10605 0.278873 
115 -123 232 0 0 0 
120 -124 237 -0.330983 -0.863634 0.380245 
143 -143 278 -0.602279 0.0465462 0.796927 
142 -138 273 0.438787 -0.812156 0.384537 
146 -136 274 0.0828219 0.0873601 0.992728 
155 -140 287 0.298516 -0.154029 0.941893 
150 -131 274 -0.0843634 -0.438413 0.894805 
152 -128 273 0.56326 0.106248 0.81942 
163 -132 288 0.851939 0.39571 0.342948 
157 -123 275 -0.715706 0.0922075 0.692288 
158 -119 273 -0.221684 0.0755458 0.972188 
163 -119 277 -0.190467 0.793865 0.577495 
164 -115 276 -0.293646 0.0926616 0.951413 
166 -112 276 -0.281249 0.0412499 0.958748 
170 -110 278 -0.553379 0.421229 0.718567 
171 -107 277 -0.180593 0.209594 0.960967 
173 -104 277 -0.166583 0.380151 0.9098 
160 -93 255 -0.531925 0.705342 0.468561 
154 -85 242 -0.214301 0.793994 0.568901 
153 -81 238 0.115778 -0.570098 0.813378 
155 -79 239 -0.571208 -0.68778 0.447973 
164 -80 251 -0.791963 0.103936 0.601658 
170 -79 259 -0.714597 0.328941 0.617373 
180 -80 272 -0.561875 0.269133 0.782218 
189 -80 283 -0.560594 0.0578951 0.826064 
185 -75 275 0.467212 0.868517 0.165502 
190 -73 281 -0.782244 0.610062 0.126168 
198 -72 290 0.444371 0.89287 0.0729154 
193 -66 281 0.147701 0.987389 0.0569871 
195 -63 282 -0.99873 -0.00307933 0.0502957 
202 -62 291 0 0 0 
197 -57 282 0.864066 -0.466862 0.188227 
198 -53 282 0.0720531 0.996913 0.0311871 
208 -52 295 -0.491759 0.869825 0.0397243 
200 -46 283 0.684615 -0.711939 0.156353 
201 -43 283 0 0 0 
212 -41 297 -0.689995 0.723585 0.0181946 
204 -36 285 0.99352 -0.0954228 0.0617442 
204 -32 285 0 0 0 
214 -30 298 -0.996493 -0.0510743 0.0662879 
206 -25 286 0.99332 0.0344825 0.110122 
207 -22 286 0 0 0 
227 -20 313 -0.744985 0.665216 0.0498556 
205 -14 283 -0.829637 -0.553566 0.0725755 
210 -11 290 0.802026 -0.597018 0.0180075 
210 -7 290 0.99605 -0.0852524 0.0248203 
210 -4 289 0.980223 0.196045 0.0270002 
209 0 288 0.848272 0.525788 0.0630946 
-190 0 252 0.0841101 0.978847 0.186505 
-180 -3 239 -0.531351 -0.675503 0.511236 
-181 -6 240 0.0922439 -0.745272 0.660349 
-177 -9 235 -0.536522 -0.797703 0.275341 
-154 -11 205 -0.137082 0.823969 0.549804 
-166 -15 221 0 0 0 
-158 -17 211 -0.232229 0.933138 0.274452 
-191 -23 255 0.111556 0.939486 0.323914 
-183 -26 245 0.304814 0.810206 0.500654 
-197 -31 265 0.388389 0.341968 0.855694 
-181 -32 244 -0.475005 0.12485 0.871081 
-191 -37 259 0.380188 -0.0543125 0.923313 
-179 -38 243 0.986801 0.142656 0.0766333 
-178 -41 243 0.2494 0.959734 0.12927 
-178 -44 243 -0.93719 -0.330376 0.111923 
-176 -47 242 -0.712674 -0.688668 0.133533 
-180 -52 249 0.947087 0.315696 0.0579849 
-173 -53 240 -0.919134 0.366817 0.143658 
-179 -58 250 -0.294514 0.943261 0.153365 
-171 -59 240 0 0 0 
-176 -64 248 -0.182863 -0.665374 0.723767 
-167 -64 238 0 0 0 
-167 -68 240 0.368443 -0.52426 0.767725 
-166 -71 240 0.0565061 0.877911 0.475478 
-162 -72 236 0.614164 0.222343 0.75721 
-170 -79 249 0.267785 -0.613212 0.743143 
-160 -78 236 0.421099 0.667434 0.614172 
-158 -81 236 0.655412 0.729436 0.195853 
-165 -88 248 0.68505 -0.723027 0.0891003 
-174 -96 264 -0.108121 0.894456 0.433888 
-179 -104 275 0.542866 -0.805792 0.236634 
-178 -107 276 0.821809 0.560917 0.100009 
-176 -110 275 0.977215 -0.210166 0.0296845 
-182 -118 288 -0.940972 -0.337426 0.0267394 
-172 -116 276 0 0 0 
-170 -119 275 0 0 0 
-174 -126 285 0 0 0 
-165 -124 274 -0.411842 0.910318 0.0413175 
-163 -127 275 -0.759524 -0.64879 0.0468492 
-160 -130 273 -0.997078 -0.0311251 0.0697633 
-156 -131 271 0.879486 0.46971 0.0766589 
-139 -120 244 0.950762 0.280574 0.131644 
-130 -117 232 -0.990168 -0.138241 0.0213544 
-129 -120 233 0.986801 0.142656 0.0766333 
-132 -128 244 0 0 0 
-124 -124 232 0 0 0 
-126 -130 240 0.658367 -0.750166 0.0616771 
-120 -129 233 0.980555 -0.189439 0.0512319 
-116 -129 231 -0.940921 -0.335951 0.0424766 
-120 -139 244 -0.347717 0.936361 0.0481855 
-112 -133 231 -0.637836 -0.769609 0.0294386 
-109 -135 231 0.191997 -0.979306 0.0639991 
-111 -142 239 -0.605831 0.795241 0.0236762 
-104 -138 230 -0.948579 0.291359 0.123728 
-102 -141 231 0.999545 0.00707464 0.0293092 
-99 -142 230 -0.999794 0.0110308 0.0170476 
-97 -144 230 -0.621671 -0.783 0.0208615 
-100 -153 243 0.692854 0.718675 0.0588137 
-92 -146 229 0.728898 -0.568377 0.381648 
-89 -149 230 -0.823973 0.563024 0.0638189 
-89 -154 236 -0.385983 0.898685 0.208285 
-84 -151 229 -0.111781 0.914948 0.387783 
-81 -152 228 0.849608 -0.113954 0.514957 
-78 -153 228 -0.859376 0.234101 0.454609 
-76 -156 231 0.53272 -0.842409 0.0809735 
-75 -161 236 0.75548 0.652265 0.0616426 
-70 -157 228 -0.13526 -0.990011 0.0397823 
-67 -158 228 0.334363 -0.942066 0.0266982 
-69 -170 244 -0.110095 -0.785344 0.609192 
-67 -174 247 -0.793375 0.572396 0.207168 
-69 -191 269 -0.0622106 -0.958552 0.278044 
-65 -190 267 -0.968952 0.0156477 0.246752 
-63 -193 269 -0.933986 0.126804 0.334053 
-61 -201 279 -0.621334 0.116592 0.774823 
-56 -194 268 0.515204 0.224733 0.827079 
-52 -195 268 0.702704 0.300699 0.644815 
-49 -198 271 0.900123 0.110591 0.421364 
-40 -173 236 0.912715 -0.256837 0.317782 
-37 -172 234 -0.00951511 -0.0771781 0.996972 
-33 -168 228 -0.571894 0.327027 0.752323 
-30 -170 228 -0.214153 -0.968176 0.129518 
-29 -180 242 0.178016 0.774445 0.60708 
-24 -170 228 0.656618 -0.064656 0.751447 
-21 -170 228 0.0425887 0.501448 0.864139 
-18 -174 232 -0.880714 -0.103198 0.462269 
-15 -171 228 0.574064 0.79638 0.190339 
-12 -172 229 -0.00632033 0.936674 0.350147 
-9 -171 228 0.0829021 -0.122602 0.988987 
-6 -173 229 0.815968 0.160199 0.555457 
-3 -183 243 -0.370937 0.0351414 0.927993 
0 -172 228 0 0 0 
3 -173 229 -0.449221 0.606198 0.656297 
6 -178 236 -0.220067 0.869789 0.441631 
9 -172 228 0.530096 0.728263 0.434316 
12 -172 229 -0.4754 0.809293 0.345023 
15 -171 228 -0.470864 -0.198809 0.859513 
18 -172 230 -0.0985031 0.929708 0.354881 
22 -182 243 0.662302 -0.0470021 0.747761 
24 -171 229 0.0831061 0.973706 0.212107 
27 -171 230 -0.738787 0.586827 0.331403 
31 -175 236 0.617727 -0.604262 0.503271 
33 -170 230 0.204379 0.971116 0.123135 
36 -170 230 -0.725174 0.629547 0.278913 
40 -172 234 0.780734 -0.335059 0.527437 
42 -168 230 -0.479869 0.875864 0.0508744 
45 -167 229 0.108446 0.95511 0.275688 
49 -172 238 -0.37214 -0.919974 0.123124 
51 -167 232 0.181051 0.965169 0.188866 
54 -166 232 -0.547386 0.812694 0.199743 
61 -178 250 0 0 0 
60 -164 232 -0.119634 0.973441 0.195192 
63 -163 232 0.444977 0.873692 0.196618 
69 -171 244 0.334327 0.405858 0.850591 
68 -161 232 -0.625991 -0.478304 0.615922 
71 -160 232 0.869596 0.459158 0.181596 
78 -167 244 0.890031 -0.365256 0.272824 
77 -157 232 -0.565582 -0.81367 0.134381 
80 -156 232 0.417115 -0.904438 0.0894802 
87 -164 246 0.558909 -0.821581 0.112365 
85 -153 232 0.410703 -0.871417 0.268245 
88 -152 232 0.439682 -0.877893 0.189695 
95 -159 246 0.547518 -0.824966 0.1402 
93 -149 232 -0.683733 -0.459723 0.566713 
95 -147 232 -0.806534 0.138136 0.574823 
104 -154 247 -0.413014 0.400257 0.818055 
100 -143 232 0.0196283 0.409578 0.912064 
104 -143 234 -0.434545 0.690943 0.577728 
112 -149 248 -0.360343 0.449239 0.817519 
109 -139 234 -0.402149 0.318945 0.858225 
111 -137 233 -0.38392 0.53422 0.753136 
115 -136 236 -0.538579 0.552085 0.636502 
116 -133 234 -0.725872 -0.527456 0.441476 
119 -132 236 -0.577502 -0.0522435 0.814716 
135 -145 264 -0.566873 -0.604101 0.560105 
144 -149 275 -0.697466 -0.265323 0.665691 
147 -147 276 0.0675957 -0.279311 0.957819 
150 -145 277 0.0260385 -0.04062 0.998835 
153 -143 278 -0.393938 -0.130378 0.909843 
155 -139 276 -0.467536 0.457693 0.756259 
157 -137 276 -0.757606 0.256736 0.6001 
162 -136 280 0 0 0 
162 -131 277 -0.843493 0.102024 0.527363 
165 -129 277 0.243469 -0.811046 0.53191 
170 -128 283 0.542496 -0.446273 0.711715 
169 -123 277 0.545183 0.639704 0.541807 
172 -120 279 -0.769063 -0.416372 0.48495 
179 -121 287 0.927081 -0.0405353 0.372663 
177 -115 280 0.596504 0.679583 0.427024 
179 -112 280 -0.142656 0.0766333 0.986801 
191 -115 295 -0.336993 0.138924 0.931201 
182 -105 280 -0.0898496 0.292988 0.951885 
182 -101 276 -0.282597 0.226359 0.932148 
196 -104 294 0.224659 -0.107887 0.968446 
189 -96 281 -0.507781 -0.00133979 0.861485 
191 -93 282 -0.464061 -0.14023 0.874633 
201 -94 295 0.0897175 -0.853028 0.514095 
195 -87 284 0.019832 -0.192487 0.981099 
197 -84 284 0.194554 -0.0795345 0.977662 
208 -84 297 0.427921 -0.796095 0.427921 
199 -77 284 -0.0593914 -0.276739 0.959108 
202 -73 285 0.188179 0.977793 0.0922446 
212 -73 297 0.668875 0.740797 0.061853 
204 -66 284 -0.791242 -0.560268 0.24502 
205 -63 285 0.960424 -0.274228 0.0488351 
207 -59 286 -0.891185 0.449025 0.0645388 
208 -56 285 -0.758215 -0.650101 0.0497889 
210 -52 287 0.194655 0.980354 0.0318527 
213 -49 290 0 0 0 
212 -45 288 -0.813387 -0.57938 0.0521583 
213 -41 288 0.999038 0.0402089 0.017527 
214 -38 288 -0.395688 0.91805 0.0248121 
213 -34 287 0 0 0 
215 -30 288 0 0 0 
217 -27 290 0.946947 -0.320679 0.0213786 
216 -23 288 -0.982219 -0.186703 0.019714 
216 -19 288 -0.257092 0.965634 0.0381333 
220 -15 292 -0.899994 -0.434618 0.0334322 
222 -12 295 -0.664627 0.74647 0.0324552 
220 -8 292 0 0 0 
220 -4 292 0 0 0 
223 0 296 -0.722575 0.687961 0.0677865 
-188 0 240 0.670988 0.725515 0.152979 
-206 -4 263 -0.560562 0.808357 0.179803 
-188 -7 241 0.95663 -0.127638 0.261856 
-165 -9 211 0.376423 -0.802502 0.462921 
-171 -12 219 -0.0329664 -0.968235 0.247858 
-166 -15 214 -0.534748 0.720172 0.442037 
-181 -19 232 -0.699924 0.696887 0.156382 
-191 -23 247 0 0 0 
-191 -27 247 0.66815 -0.162852 0.725985 
-189 -30 244 0.57513 0.294734 0.763123 
-195 -34 254 0.737328 -0.0828948 0.67043 
-186 -36 243 0.304846 0.255724 0.917428 
-191 -41 250 0.51674 -0.496673 0.697349 
-185 -43 243 0.991178 -0.0419127 0.125738 
-188 -47 247 0.271226 -0.128336 0.953922 
-183 -49 243 0.850251 0.523554 0.0544496 
-184 -53 245 0.0544699 -0.206986 0.976826 
-181 -55 243 0.985881 0.108483 0.127557 
-180 -58 242 -0.361248 -0.171416 0.916579 
-180 -62 243 -0.29339 -0.228192 0.928359 
-177 -64 241 -0.506419 -0.447035 0.73736 
-184 -71 252 0.182826 0.115666 0.976318 
-175 -71 241 -0.0938122 -0.103078 0.99024 
-173 -74 241 -0.276533 0.695329 0.66336 
-177 -79 248 -0.406615 0.168106 0.898001 
-170 -79 240 0 0 0 
-169 -83 241 -0.53099 0.568076 0.62876 
-168 -86 241 -0.476068 0.549566 0.68654 
-166 -88 241 -0.0920397 0.91078 0.402502 
-193 -107 283 0.0905948 0.829733 0.550759 
-188 -108 277 0.158971 0.761545 0.628313 
-186 -112 277 0.504706 -0.848083 0.161328 
-191 -119 288 0.903171 -0.428376 0.0278511 
-181 -117 276 0.978322 -0.203767 0.0369403 
-178 -120 274 0.990766 -0.133523 0.0235629 
-177 -124 277 0 0 0 
-174 -127 276 0.462533 -0.885961 0.0337124 
-177 -133 283 0 0 0 
-168 -132 273 0.984456 0.168193 0.0505754 
-153 -124 251 0 0 0 
-147 -123 245 0.212562 -0.976344 0.0396302 
-138 -120 235 -0.42944 -0.896649 0.10771 
-136 -123 235 -0.934818 0.138238 0.327118 
-137 -128 240 0.609449 0.710751 0.351291 
-132 -128 236 -0.131345 -0.99023 0.0468275 
-137 -137 247 -0.752776 -0.658157 0.0125231 
-128 -132 236 -0.758005 -0.651912 0.0209394 
-126 -135 236 0.746388 0.664243 0.0410726 
-128 -142 245 0.989858 0.140445 0.0213477 
-121 -139 236 0.0996984 -0.993624 0.0526497 
-118 -141 235 0.968889 0.243753 0.0428712 
-115 -143 235 -0.213047 -0.963285 0.163379 
-112 -144 233 -0.823898 -0.562072 0.0725713 
-116 -153 246 -0.965885 0.255349 0.0431749 
-107 -148 234 -0.991222 0.109115 0.0746575 
-105 -149 233 0.973944 0.21874 0.0598786 
-106 -157 243 0.713802 -0.699723 0.0295658 
-99 -153 233 0.322863 0.945619 0.0395603 
-97 -155 233 0.517392 0.851925 0.0807983 
-94 -156 232 -0.715095 0.694788 0.0768763 
-91 -158 234 -0.564238 -0.819523 0.100083 
-93 -167 245 -0.982665 0.149036 0.110262 
-86 -161 233 -0.414934 -0.795962 0.440766 
-82 -162 232 -0.101271 0.352424 0.930345 
-84 -172 244 -0.991227 -0.119769 0.055892 
-77 -166 234 -0.808362 0.408183 0.42419 
-76 -170 238 -0.582435 -0.659646 0.475012 
-72 -170 236 -0.145004 -0.974679 0.170222 
-68 -169 233 -0.286284 -0.949399 0.129161 
-73 -190 261 -0.0491955 -0.995937 0.0754332 
-66 -181 247 -0.792152 0.344066 0.504097 
-69 -200 271 -0.686383 -0.344007 0.640733 
-70 -217 292 -0.838145 0.484433 0.250675 
-62 -202 270 -0.8062 -0.574584 0.141048 
-59 -205 273 -0.897062 -0.13463 0.420897 
-55 -204 270 0.381758 0.173006 0.907926 
-51 -205 271 0.867597 0.0230096 0.496736 
-52 -225 296 0.708047 0.311283 0.633855 
-38 -177 232 0.90293 0.198558 0.381173 
-35 -178 232 -0.422438 0.00915501 0.906345 
-32 -182 237 -0.592909 -0.321496 0.738309 
-28 -179 232 0.568908 0.297999 0.766512 
-26 -184 237 0.453307 -0.164706 0.876005 
-22 -180 232 -0.396536 0.412461 0.820144 
-16 -153 197 0 0 0 
-15 -169 217 0.00693064 0.722173 0.691678 
-10 -150 192 0.573296 0.761733 0.301819 
-8 -150 192 -0.869691 -0.0978934 0.483792 
-5 -153 196 0.549897 -0.784436 0.286834 
-3 -150 191 0.840538 -0.41166 0.352181 
0 -155 199 -0.740554 -0.578507 0.341919 
3 -150 192 -0.771236 0.301788 0.560463 
5 -150 192 0.538933 -0.786938 0.300467 
9 -169 217 0 0 0 
10 -149 191 -0.895265 0.362545 0.258961 
13 -150 193 0 0 0 
16 -152 195 0.612894 -0.698338 0.369708 
18 -149 192 0.395993 -0.87781 0.269516 
21 -151 195 -0.0539034 -0.961486 0.269517 
24 -151 195 -0.885998 -0.43505 0.160434 
27 -153 199 -0.0097597 -0.994404 0.105188 
34 -175 229 0.570488 -0.513271 0.641168 
35 -163 213 -0.692772 0.63735 0.337421 
39 -170 224 0.717557 0.562499 0.41074 
48 -191 252 0.963332 -0.264761 0.0435053 
49 -184 244 0.728697 -0.66835 0.14936 
50 -175 233 -0.908086 0.212901 0.360628 
54 -178 238 0.974797 -0.21996 0.037261 
56 -173 232 0.721283 -0.686027 0.0954856 
59 -172 233 0.424406 -0.905311 0.0170813 
64 -176 240 0 0 0 
66 -171 235 -0.691717 -0.712543 0.117518 
68 -169 233 0.494282 0.854296 0.160826 
71 -168 234 0.0526311 0.948644 0.311936 
74 -166 233 -0.964721 0.149318 0.216835 
77 -165 232 0.64784 0.737091 0.192352 
80 -165 235 -0.116718 0.895778 0.428905 
84 -165 236 -0.249735 -0.880802 0.402268 
86 -161 234 -0.393683 0.903323 0.170357 
90 -162 236 -0.406243 0.784972 0.467746 
93 -162 239 0.237015 -0.935438 0.262259 
94 -157 234 -0.91162 0.355719 0.205943 
98 -157 236 -0.314607 -0.734082 0.601786 
103 -158 241 -0.656249 -0.682174 0.322453 
103 -152 235 0.213778 0.56751 0.79513 
105 -150 234 -0.687161 0.24485 0.684002 
111 -153 243 -0.0996531 -0.26531 0.958999 
110 -146 234 0.290394 0.458108 0.840124 
113 -145 235 -0.402396 0.402396 0.822287 
120 -149 245 -0.279747 0.498543 0.820486 
118 -141 235 -0.814866 -0.403446 0.416203 
128 -147 249 -0.76346 -0.479002 0.433227 
150 -166 286 -0.423034 0.191756 0.885591 
146 -156 273 -0.786305 -0.0124372 0.617713 
149 -155 275 -0.398424 0.29462 0.868595 
158 -158 287 -0.534565 0.162305 0.829395 
154 -149 274 -0.320781 0.273909 0.906683 
157 -146 274 -0.446454 0.254463 0.857862 
167 -151 288 -0.13294 0.390423 0.910987 
162 -141 275 -0.25701 -0.534269 0.805297 
166 -139 277 0.395368 0.0492546 0.917201 
174 -141 287 -0.428867 0.150606 0.890725 
169 -132 275 0.0676819 0.162674 0.984356 
173 -130 277 -0.431509 0.304685 0.849098 
180 -131 284 -0.140128 0.359339 0.922627 
178 -124 277 -0.284846 -0.593562 0.752693 
180 -122 278 -0.0420395 -0.0635982 0.99709 
184 -120 281 -0.479382 -0.156862 0.863474 
185 -115 279 -0.607254 0.340258 0.71796 
187 -113 280 -0.42078 0.342568 0.839995 
191 -110 282 -0.596135 0.372789 0.711092 
191 -106 280 -0.509755 0.217597 0.832347 
194 -103 281 -0.704485 0.369485 0.605955 
195 -100 281 -0.524299 0.374963 0.764535 
200 -97 284 0.768658 0.364101 0.525924 
199 -93 281 -0.520825 0.00946954 0.853611 
201 -89 281 -0.434812 0.399513 0.807049 
205 -87 284 0.604079 0.450131 0.657626 
204 -82 281 -0.530341 -0.00949459 0.847731 
206 -79 283 -0.546673 0.293143 0.784357 
211 -77 288 -0.328149 0.190129 0.925294 
209 -72 283 -0.447761 0.891388 0.070264 
211 -69 284 0.286191 0.95691 0.0491693 
218 -67 292 -0.861614 0.506591 0.0314059 
212 -61 283 -0.171264 -0.984475 0.0384469 
215 -58 285 0.821199 -0.568523 0.0491316 
222 -55 293 0.124637 -0.988942 0.0803734 
217 -50 284 0.713265 0.625926 0.315389 
218 -46 285 0.0515923 0.995622 0.0779374 
227 -44 296 -0.859473 0.507298 0.0628882 
219 -39 285 -0.185691 -0.982174 0.0291966 
221 -35 286 -0.106959 0.988494 0.106959 
231 -32 299 -0.989995 0.137216 0.0328864 
222 -27 287 0.359355 -0.902055 0.239081 
223 -23 288 -0.892654 -0.449683 0.0308738 
231 -20 296 -0.291456 0.953974 0.0706172 
224 -16 288 0.216185 -0.97582 0.0322486 
226 -12 289 0.965373 0.257679 0.0406862 
234 -8 300 0.984711 -0.033715 0.1709 
226 -4 289 0.481969 -0.874174 0.059383 
226 0 289 -0.0856105 0.995899 0.0292593 
-209 0 258 0 0 0 
-196 -3 242 -0.170661 0.952748 0.251289 
-207 -7 256 0.03337 -0.962786 0.268196 
-178 -9 221 -0.314069 -0.903871 0.290477 
-168 -12 208 0.627039 -0.755819 0.188572 
-179 -16 221 -0.217537 0.96112 0.170075 
-172 -18 214 0.179012 0.933913 0.309454 
-209 -26 260 0.177549 0.845968 0.502806 
-198 -28 246 0.127103 0.884009 0.449859 
-206 -33 258 -0.276398 0.094728 0.956363 
-196 -35 246 0.179233 -0.823867 0.537698 
-202 -39 254 0.318514 -0.725953 0.609542 
-195 -41 246 -0.0805635 -0.507409 0.857931 
-193 -45 245 -0.191535 -0.306176 0.932508 
-192 -48 245 -0.115258 -0.0391654 0.992563 
-191 -51 245 -0.0749191 -0.00738639 0.997162 
-191 -55 246 0.00106471 -0.0947588 0.9955 
-189 -58 244 0.215333 -0.296962 0.930293 
-196 -64 254 0.706481 0.289962 0.645605 
-186 -64 242 0.124194 0.257539 0.958253 
-192 -70 253 0 0 0 
-183 -70 242 0.564701 0.13784 0.813703 
-183 -74 243 0.549806 -0.118128 0.826897 
-183 -78 246 0.103443 0.0670675 0.992372 
-178 -79 241 -0.176939 0.44308 0.878847 
-180 -84 245 -0.0877653 0.120531 0.988822 
-175 -86 241 0.0371929 0.516569 0.855438 
-180 -92 249 -0.0803685 0.858674 0.506181 
-209 -111 292 0.175562 0.740415 0.648817 
